# .PCD v0.7 - Point Cloud Data file format
VERSION 0.7
FIELDS x y z rgba timestamp intensity
SIZE 4 4 4 4 4 4
TYPE F F F U U U
COUNT 1 1 1 1 1 1
WIDTH 915
HEIGHT 1
VIEWPOINT 0 0 0 1 0 0 0
POINTS 915
DATA ascii
5.2020001 5.244 143.028 4278255565 1564550946 70
5.3660002 5.2410002 142.94501 4278255577 1564482481 70
5.3660002 5.2410002 142.955 4278255576 1564482481 70
6.224 5.2410002 142.94901 4278255571 1564335817 70
6.2270002 5.243 143.01601 4278255561 1564335817 70
6.2449999 5.2410002 142.948 4278255571 1564335817 70
6.2480001 5.243 143.015 4278255561 1564335817 70
6.3520002 5.243 142.996 4278255563 1564335817 70
6.3530002 5.244 143.039 4278255556 1564335817 70
6.3720002 5.2420001 142.995 4278255563 1564335817 70
6.3740001 5.244 143.03799 4278255556 1564335817 70
6.961 5.244 143.049 4278255550 1564482481 70
6.9619999 5.2449999 143.05901 4278255549 1564482481 70
7.6719999 5.244 143.02699 4278255548 1564550946 70
7.6719999 5.244 143.037 4278255546 1564550946 70
7.9239998 5.2449999 143.052 4278255542 1564499754 70
8.5939999 5.244 143.04201 4278255537 1564335817 70
8.5950003 5.2449999 143.06599 4278255534 1564335817 70
8.6149998 5.244 143.041 4278255537 1564335817 70
8.6160002 5.2449999 143.065 4278255534 1564335817 70
8.8459997 5.2449999 143.05099 4278255534 1564335817 70
8.8459997 5.2449999 143.065 4278255531 1564335817 70
8.8660002 5.244 143.05 4278255534 1564335817 70
8.8669996 5.2449999 143.064 4278255531 1564335817 70
9.5380001 5.2459998 143.07899 4278255522 1564533683 70
9.5459995 5.25 143.189 4278255505 1564533683 70
9.7880001 5.2449999 143.052 4278255524 1564516574 70
9.7980003 5.25 143.196 4278255501 1564516574 70
10.419 5.2459998 143.089 4278255511 1564335817 70
10.439 5.2459998 143.088 4278255511 1564335817 70
10.648 5.2449999 143.073 4278255511 1564335817 70
10.669 5.2449999 143.071 4278255511 1564335817 70
10.92 5.2449999 143.071 4278255508 1564482481 70
11.739 5.2459998 143.103 4278255493 1564335817 70
11.76 5.2459998 143.101 4278255493 1564335817 70
11.947 5.2459998 143.08501 4278255493 1564335817 70
11.968 5.2459998 143.084 4278255493 1564335817 70
4.6810002 1.908 52.048 4291559679 1564550520 70
12.87 5.2470002 143.10699 4278255477 1564550520 70
13.291 5.2470002 143.12601 4278255468 1564335817 70
13.312 5.2470002 143.12399 4278255468 1564335817 70
13.627 5.2470002 143.12801 4278255462 1564335817 70
13.647 5.2470002 143.12601 4278255462 1564335817 70
14.041 5.2459998 143.078 4278255464 1564335817 70
14.061 5.2449999 143.076 4278255464 1564335817 70
5.2690001 1.9 51.838001 4293132543 1564516574 70
5.2859998 1.904 51.937 4292083967 1564533683 70
14.562 5.2449999 143.06 4278255459 1564533683 70
5.7600002 1.92 52.368999 4287103231 1564567732 70
5.8670001 1.9220001 52.433998 4286316799 1564482481 70
16.023001 5.25 143.203 4278255412 1564482481 70
5.9650002 1.919 52.355999 4287037695 1564482481 70
16.292999 5.243 142.99899 4278255439 1564482481 70
16.757 5.2309999 142.67 4278255482 1564335817 70
16.778 5.23 142.668 4278255482 1564335817 70
16.992001 5.2259998 142.541 4278255498 1564335817 70
17.013 5.2259998 142.539 4278255498 1564335817 70
12.49 3.8080001 103.879 4278255494 1564533342 70
17.146999 5.2290001 142.614 4278255484 1564533342 70
12.752 3.8 103.664 4278255523 1564516574 70
12.751 3.7950001 103.529 4278255544 1564516574 70
12.533 3.661 99.861 4294639871 1564335817 70
12.725 3.658 99.768997 4294902010 1564335817 70
12.73 3.655 99.685997 4294901997 1564335817 70
-17.950001 5.1810002 140.563 4278211327 1564335817 70
-17.929001 5.1810002 140.565 4278211327 1564335817 70
-17.938 5.1830001 140.63699 4278214143 1564335817 70
-17.917999 5.1830001 140.63901 4278214143 1564335817 70
-17.68 5.1739998 140.38 4278202623 1564335817 70
-17.659 5.1739998 140.382 4278202623 1564335817 70
-17.674 5.178 140.50101 4278207487 1564335817 70
-17.653999 5.178 140.504 4278207487 1564335817 70
-17.405001 5.178 140.48599 4278205439 1564335817 70
-17.372 5.1739998 140.384 4278201343 1564335817 70
-17.385 5.178 140.489 4278205439 1564335817 70
-17.351999 5.1739998 140.38699 4278201343 1564335817 70
-17.055 5.184 140.655 4278210559 1564335817 70
-17.006001 5.1750002 140.414 4278200575 1564335817 70
-17.035 5.184 140.657 4278210559 1564335817 70
-16.986 5.1750002 140.41701 4278200575 1564335817 70
-16.625999 5.178 140.50301 4278202367 1564335817 70
-16.606001 5.1789999 140.506 4278202367 1564335817 70
-13.806 4.4320002 120.244 4285137151 1564482912 70
-13.797 4.434 120.318 4284350719 1564550946 70
-13.382 4.4369998 120.384 4284154111 1564568126 70
-13.305 4.4349999 120.33 4284809471 1564568126 70
-11.095 3.8299999 103.921 4278255512 1564550946 70
-11.062 3.829 103.895 4278255517 1564482912 70
-14.062 5.0700002 137.55499 4294901812 1564534119 70
-14.019 5.0689998 137.521 4294901806 1564499754 70
-4.4130001 2.1730001 58.957001 4294938880 1564550946 70
-4.427 2.1789999 59.138 4294931456 1564550946 70
-4.4130001 2.181 59.182999 4294929664 1564482912 70
-4.415 2.1819999 59.207001 4294928640 1564482912 70
-4.0630002 2.1789999 59.139999 4294932480 1564534119 70
-4.0669999 2.181 59.188 4294930432 1564534119 70
-4.046 2.1789999 59.137001 4294932736 1564499754 70
-4.0489998 2.181 59.18 4294930944 1564499754 70
-13.284 8.7690001 237.91499 4280877311 1564397557 70
-6.3070002 5.4860001 148.86 4294901968 1564568126 70
-6.309 5.4879999 148.91299 4294901976 1564568126 70
-6.1810002 5.4899998 148.966 4294901984 1564568126 70
-6.8400002 7.1620002 194.325 4292017920 1564335817 70
-6.8109999 7.1620002 194.326 4292017920 1564335817 70
-6.7589998 7.1669998 194.44299 4293197568 1564335817 70
-6.7600002 7.1680002 194.481 4293590784 1564335817 70
-6.73 7.1669998 194.444 4293197568 1564335817 70
-6.7309999 7.1680002 194.48199 4293590784 1564335817 70
-4.5159998 8.783 238.28101 4280484095 1564517010 70
-3.645 8.7840004 238.32899 4280090879 1564533683 70
0.252 3.8510001 104.491 4278255515 1564335817 70
1.466 1.898 51.502998 4294901952 1564499754 70
1.469 1.902 51.612999 4294901969 1564499754 70
4.3340001 5.0879998 138.054 4294901789 1564533683 70
5.053 5.27 142.97501 4278255574 1564335817 70
5.0560002 5.2719998 143.052 4278255562 1564335817 70
5.0739999 5.27 142.974 4278255574 1564335817 70
5.0770001 5.2719998 143.05099 4278255562 1564335817 70
5.473 5.2709999 143.007 4278255567 1564335817 70
5.494 5.2709999 143.007 4278255567 1564335817 70
5.1030002 4.4549999 120.864 4285792511 1564335817 70
5.1040001 4.4559999 120.897 4285399295 1564335817 70
6.039 5.2719998 143.033 4278255559 1564335817 70
5.1209998 4.4549999 120.863 4285792511 1564335817 70
5.1220002 4.4559999 120.896 4285399295 1564335817 70
6.0599999 5.2719998 143.032 4278255559 1564335817 70
6.2449999 5.2690001 142.94701 4278255571 1564567732 70
6.2480001 5.2709999 143.01401 4278255561 1564567732 70
6.3720002 5.27 142.994 4278255563 1564567732 70
6.3740001 5.2719998 143.037 4278255556 1564567732 70
7.21 5.2709999 143.002 4278255555 1564335817 70
7.211 5.2709999 143.026 4278255552 1564335817 70
7.2309999 5.2709999 143.00101 4278255555 1564335817 70
7.2319999 5.2709999 143.02499 4278255552 1564335817 70
7.3790002 5.2719998 143.037 4278255549 1564335817 70
7.3800001 5.2719998 143.047 4278255547 1564335817 70
7.4000001 5.2719998 143.036 4278255549 1564335817 70
7.401 5.2719998 143.04601 4278255547 1564335817 70
8.6149998 5.2719998 143.03999 4278255537 1564533683 70
8.6160002 5.2729998 143.064 4278255534 1564533683 70
8.8660002 5.2719998 143.049 4278255534 1564516574 70
8.8669996 5.2729998 143.063 4278255531 1564516574 70
9.5139999 5.2709999 143.022 4278255531 1564335817 70
9.5179996 5.2740002 143.089 4278255521 1564335817 70
9.5340004 5.2709999 143.02 4278255531 1564335817 70
9.5389996 5.2740002 143.08701 4278255521 1564335817 70
9.7679996 5.2729998 143.062 4278255522 1564335817 70
9.7880001 5.2729998 143.061 4278255522 1564335817 70
10.439 5.2740002 143.08701 4278255511 1564550520 70
10.668 5.2729998 143.07001 4278255511 1564499754 70
11.341 5.2740002 143.10001 4278255498 1564335817 70
11.362 5.2740002 143.09801 4278255498 1564335817 70
11.508 5.2740002 143.09599 4278255496 1564335817 70
11.529 5.2740002 143.095 4278255496 1564335817 70
11.76 5.2740002 143.10001 4278255493 1564567732 70
11.968 5.2740002 143.08299 4278255493 1564567732 70
12.618 5.2740002 143.099 4278255481 1564335817 70
12.639 5.2740002 143.097 4278255481 1564335817 70
12.768 5.2750001 143.129 4278255475 1564335817 70
12.789 5.2750001 143.127 4278255475 1564335817 70
4.8179998 1.909 51.808998 4293853439 1564499754 70
13.312 5.2750001 143.123 4278255468 1564499754 70
4.9590001 1.9170001 52.007 4291690751 1564533683 70
13.647 5.2750001 143.125 4278255462 1564533683 70
5.125 1.9220001 52.146 4290117887 1564516574 70
14.061 5.2729998 143.075 4278255464 1564516574 70
14.338 5.2750001 143.12 4278255453 1564335817 70
14.359 5.2750001 143.118 4278255453 1564335817 70
14.727 5.2719998 143.033 4278255460 1564335817 70
14.748 5.2719998 143.03101 4278255460 1564335817 70
5.5110002 1.91 51.835999 4292870399 1564499353 70
5.5139999 1.909 51.792 4293329151 1564550520 70
15.816 5.2719998 143.032 4278255442 1564335817 70
15.836 5.2719998 143.03 4278255442 1564335817 70
15.869 5.2750001 143.133 4278255425 1564335817 70
15.889 5.2750001 143.13 4278255425 1564335817 70
6.0539999 1.928 52.326 4287234303 1564567732 70
16.777 5.2579999 142.66701 4278255482 1564397162 70
17.013 5.2529998 142.53799 4278255498 1564448440 70
12.555 3.8299999 103.914 4278255487 1564335817 70
12.679 3.822 103.691 4278255520 1564335817 70
12.792 3.8139999 103.499 4278255548 1564335817 70
12.547 3.6800001 99.858002 4294639871 1564499353 70
12.74 3.677 99.765999 4294902010 1564550520 70
12.744 3.674 99.682999 4294901997 1564482481 70
-17.929001 5.2080002 140.564 4278211327 1564568126 70
-17.917999 5.211 140.638 4278214143 1564568126 70
-17.659 5.2010002 140.381 4278202623 1564550946 70
-17.653999 5.2059999 140.50301 4278207487 1564482912 70
-17.385 5.2049999 140.48801 4278205439 1564534119 70
-17.351999 5.2010002 140.386 4278201343 1564499754 70
-17.035 5.211 140.65601 4278210559 1564517010 70
-16.985001 5.2030001 140.416 4278200575 1564517010 70
-16.861 5.1960001 140.23801 4278192895 1564335817 70
-16.841 5.1960001 140.24001 4278192895 1564335817 70
-16.605 5.2059999 140.505 4278202367 1564499754 70
-16.495001 5.217 140.793 4278213375 1564335817 70
-16.475 5.217 140.795 4278213375 1564335817 70
-16.334 5.211 140.64301 4278206719 1564335817 70
-16.313 5.211 140.645 4278206719 1564335817 70
-13.532 4.4580002 120.313 4284743935 1564335817 70
-13.515 4.4580002 120.315 4284743935 1564335817 70
-11.246 3.8499999 103.904 4278255512 1564335817 70
-10.944 3.8510001 103.931 4278255513 1564335817 70
-14.262 5.0890002 137.345 4294901783 1564335817 70
-14.242 5.0890002 137.347 4294901783 1564335817 70
-13.833 5.0939999 137.48 4294901797 1564335817 70
-13.813 5.0939999 137.48199 4294901797 1564335817 70
-13.584 5.0830002 137.202 4294904064 1564335817 70
-13.565 5.0840001 137.20399 4294904064 1564335817 70
-4.2969999 2.191 59.143002 4294931712 1564482912 70
-4.2979999 2.1919999 59.157001 4294930944 1564482912 70
-4.177 2.1919999 59.155998 4294931456 1564534119 70
-4.177 2.1919999 59.160999 4294931200 1564534119 70
-14.331 8.8170004 237.95399 4279828735 1564335817 70
-14.296 8.8170004 237.95599 4279828735 1564335817 70
-13.807 8.816 237.922 4280484095 1564335817 70
-13.808 8.816 237.946 4280221951 1564335817 70
-13.772 8.816 237.924 4280484095 1564335817 70
-13.773 8.8170004 237.948 4280221951 1564335817 70
-6.9790001 5.513 148.78101 4294901960 1564335817 70
-6.9569998 5.513 148.782 4294901960 1564335817 70
-6.6339998 5.5159998 148.869 4294901972 1564335817 70
-6.6370001 5.5180001 148.922 4294901980 1564335817 70
-6.612 5.5159998 148.87 4294901972 1564335817 70
-6.6149998 5.5180001 148.922 4294901980 1564335817 70
-6.8109999 7.1999998 194.32401 4292017920 1564550946 70
-6.73 7.204 194.442 4293197568 1564482912 70
-6.7309999 7.2059999 194.48 4293590784 1564482912 70
-6.3600001 7.204 194.42599 4292935424 1564335817 70
-6.3309999 7.204 194.427 4292935424 1564335817 70
-3.2249999 8.8280001 238.257 4280942847 1564335817 70
-3.1900001 8.8280001 238.258 4280942847 1564335817 70
0.26699999 3.8710001 104.49 4278255515 1564567732 70
1.357 1.914 51.668999 4294901977 1564533683 70
1.3710001 1.913 51.644001 4294901974 1564517010 70
4.573 5.112 137.96899 4294901777 1564335817 70
4.5770001 5.1160002 138.093 4294901797 1564335817 70
4.5929999 5.112 137.968 4294901777 1564335817 70
4.598 5.1160002 138.093 4294901797 1564335817 70
4.6090002 5.1059999 137.819 4294903296 1564335817 70
4.6290002 5.1059999 137.81799 4294903296 1564335817 70
5.0739999 5.2969999 142.97301 4278255574 1564482912 70
5.0770001 5.3000002 143.05 4278255562 1564482912 70
5.494 5.2989998 143.006 4278255567 1564550946 70
5.1209998 4.4780002 120.862 4285792511 1564567732 70
5.1220002 4.4790001 120.896 4285399295 1564567732 70
6.0599999 5.2989998 143.03101 4278255559 1564567732 70
6.5190001 5.2989998 143.006 4278255560 1564335817 70
6.52 5.2989998 143.011 4278255559 1564335817 70
6.54 5.2979999 143.005 4278255560 1564335817 70
6.5409999 5.2989998 143.00999 4278255559 1564335817 70
7.086 5.2989998 143.032 4278255552 1564335817 70
7.086 5.3000002 143.041 4278255550 1564335817 70
7.1069999 5.2989998 143.03101 4278255552 1564335817 70
7.1069999 5.3000002 143.03999 4278255550 1564335817 70
7.2309999 5.2979999 143 4278255555 1564482481 70
7.2319999 5.2989998 143.024 4278255552 1564482481 70
7.4000001 5.3000002 143.035 4278255549 1564550946 70
7.4000001 5.3000002 143.045 4278255547 1564550946 70
8.1540003 5.3000002 143.047 4278255540 1564335817 70
8.1549997 5.3010001 143.06599 4278255537 1564335817 70
8.1750002 5.3000002 143.04601 4278255540 1564335817 70
8.1759996 5.3010001 143.065 4278255537 1564335817 70
8.342 5.2989998 143.026 4278255542 1564335817 70
8.342 5.3000002 143.041 4278255540 1564335817 70
8.3620005 5.2989998 143.02499 4278255542 1564335817 70
8.3629999 5.3000002 143.03999 4278255540 1564335817 70
9.5340004 5.2989998 143.019 4278255531 1564516574 70
9.5389996 5.3010001 143.086 4278255521 1564516574 70
9.7880001 5.3010001 143.06 4278255522 1564533683 70
10.417 5.3010001 143.06799 4278255514 1564335817 70
10.438 5.3010001 143.067 4278255514 1564335817 70
10.649 5.3010001 143.08501 4278255509 1564335817 70
10.669 5.3010001 143.08299 4278255509 1564335817 70
11.362 5.302 143.097 4278255498 1564567732 70
11.529 5.302 143.09399 4278255496 1564482481 70
12.179 5.302 143.10201 4278255487 1564335817 70
12.2 5.302 143.101 4278255487 1564335817 70
12.348 5.303 143.12199 4278255481 1564335817 70
12.369 5.303 143.12 4278255481 1564335817 70
12.639 5.302 143.09599 4278255481 1564550520 70
12.788 5.303 143.12601 4278255475 1564482481 70
13.397 5.3039999 143.14301 4278255463 1564335817 70
13.418 5.3039999 143.14101 4278255463 1564335817 70
13.522 5.303 143.131 4278255463 1564335817 70
13.543 5.303 143.129 4278255463 1564335817 70
14.128 5.302 143.11099 4278255457 1564335817 70
14.148 5.302 143.10899 4278255457 1564335817 70
14.359 5.303 143.117 4278255453 1564516574 70
5.3369999 1.918 51.766998 4293787903 1564533683 70
14.748 5.2989998 143.03 4278255460 1564533683 70
5.809 1.944 52.464001 4286054655 1564482481 70
15.836 5.2989998 143.02901 4278255442 1564482481 70
5.8260002 1.944 52.486 4285858047 1564567732 70
15.889 5.303 143.129 4278255425 1564567732 70
5.994 1.937 52.273998 4287824127 1564567732 70
16.870001 5.2820001 142.563 4278255496 1564335817 70
16.889999 5.2820001 142.561 4278255496 1564335817 70
12.57 3.8499999 103.911 4278255487 1564516574 70
12.694 3.842 103.689 4278255520 1564533342 70
12.807 3.835 103.496 4278255548 1564431213 70
12.601 3.7030001 99.938004 4293722367 1564335817 70
12.682 3.697 99.773003 4294902010 1564335817 70
-17.882 5.2399998 140.67599 4278215423 1564335817 70
-17.861 5.2399998 140.67799 4278215423 1564335817 70
-17.792 5.237 140.619 4278212863 1564335817 70
-17.771999 5.2379999 140.62199 4278212863 1564335817 70
-17.544001 5.2189999 140.114 4278191359 1564335817 70
-17.523001 5.2189999 140.117 4278191359 1564335817 70
-17.490999 5.2329998 140.51199 4278206975 1564335817 70
-17.469999 5.2340002 140.515 4278206975 1564335817 70
-17.289 5.2350001 140.54201 4278207231 1564335817 70
-17.268 5.2350001 140.545 4278207231 1564335817 70
-17.155001 5.2309999 140.457 4278203135 1564335817 70
-17.135 5.2309999 140.459 4278203135 1564335817 70
-16.841 5.223 140.239 4278192895 1564517010 70
-16.475 5.244 140.79401 4278213375 1564432006 70
-16.313 5.2379999 140.644 4278206719 1564482912 70
-13.515 4.4809999 120.314 4284743935 1564568126 70
-11.23 3.8699999 103.905 4278255512 1564550946 70
-10.929 3.8710001 103.932 4278255513 1564482912 70
-14.242 5.1160002 137.34599 4294901783 1564534119 70
-13.813 5.1209998 137.481 4294901797 1564499754 70
-13.564 5.1100001 137.203 4294904064 1564312738 70
-14.296 8.8629999 237.95399 4279828735 1564517010 70
-14.224 8.8610001 237.90601 4280353023 1564335817 70
-14.228 8.8640003 237.97301 4279697663 1564335817 70
-14.189 8.8610001 237.908 4280353023 1564335817 70
-14.193 8.8640003 237.97501 4279697663 1564335817 70
-13.92 8.8669996 238.07201 4278845695 1564335817 70
-13.885 8.868 238.07401 4278845695 1564335817 70
-13.772 8.8620005 237.923 4280484095 1564499754 70
-13.773 8.8629999 237.94701 4280221951 1564499754 70
-6.9569998 5.5409999 148.78101 4294901960 1564550946 70
-6.612 5.5450001 148.869 4294901972 1564568126 70
-6.6149998 5.5469999 148.92101 4294901980 1564568126 70
-6.3309999 7.2420001 194.425 4292935424 1564482912 70
-3.8529999 8.875 238.284 4280484095 1564335817 70
-3.8180001 8.875 238.285 4280484095 1564335817 70
-3.1900001 8.8739996 238.256 4280942847 1564534119 70
0.052999999 3.888 104.404 4278255529 1564335817 70
0.145 3.885 104.317 4278255543 1564335817 70
4.5929999 5.1389999 137.967 4294901777 1564550946 70
4.598 5.1430001 138.092 4294901797 1564550946 70
4.6290002 5.1329999 137.817 4294903296 1564499754 70
4.875 4.5029998 120.91 4285399295 1564335817 70
4.8769999 4.5050001 120.953 4284940543 1564335817 70
5.7639999 5.3239999 142.95599 4278255573 1564335817 70
4.8930001 4.5029998 120.909 4285399295 1564335817 70
4.8940001 4.5050001 120.952 4284940543 1564335817 70
5.7849998 5.3239999 142.955 4278255573 1564335817 70
4.9120002 4.5040002 120.942 4285006079 1564335817 70
5.8070002 5.3249998 142.983 4278255568 1564335817 70
4.9289999 4.5040002 120.941 4285006079 1564335817 70
5.8280001 5.3249998 142.98199 4278255568 1564335817 70
6.54 5.3260002 143.004 4278255560 1564567732 70
6.54 5.3260002 143.009 4278255559 1564567732 70
7.1069999 5.3270001 143.03 4278255552 1564550946 70
7.1069999 5.3280001 143.039 4278255550 1564550946 70
7.5050001 5.3280001 143.03799 4278255547 1564335817 70
7.526 5.3270001 143.037 4278255547 1564335817 70
8.0489998 5.3270001 143.033 4278255543 1564335817 70
8.0489998 5.3280001 143.04201 4278255542 1564335817 70
8.0699997 5.3270001 143.03101 4278255543 1564335817 70
8.0699997 5.3280001 143.041 4278255542 1564335817 70
8.1750002 5.3280001 143.045 4278255540 1564499754 70
8.1759996 5.3280001 143.064 4278255537 1564499754 70
8.3620005 5.3270001 143.024 4278255542 1564533683 70
8.3629999 5.3280001 143.039 4278255540 1564533683 70
9.0970001 5.3280001 143.061 4278255529 1564335817 70
9.118 5.3280001 143.06 4278255529 1564335817 70
9.2629995 5.3270001 143.03101 4278255532 1564335817 70
9.2650003 5.329 143.069 4278255526 1564335817 70
9.2840004 5.3270001 143.03 4278255532 1564335817 70
9.2860003 5.329 143.06799 4278255526 1564335817 70
9.9969997 5.3280001 143.054 4278255521 1564335817 70
10.018 5.3280001 143.052 4278255521 1564335817 70
10.438 5.329 143.06599 4278255514 1564499754 70
10.669 5.329 143.082 4278255509 1564550946 70
11.277 5.329 143.084 4278255501 1564335817 70
11.298 5.329 143.082 4278255501 1564335817 70
11.57 5.329 143.089 4278255496 1564335817 70
11.591 5.329 143.088 4278255496 1564335817 70
12.2 5.3299999 143.10001 4278255487 1564482481 70
12.369 5.3309999 143.119 4278255481 1564567732 70
12.977 5.3309999 143.123 4278255472 1564335817 70
12.997 5.3309999 143.121 4278255472 1564335817 70
13.185 5.3299999 143.10899 4278255472 1564335817 70
13.206 5.3299999 143.10699 4278255472 1564335817 70
4.8579998 1.9299999 51.824001 4293656831 1564533683 70
13.418 5.3309999 143.14 4278255463 1564533683 70
4.9039998 1.9299999 51.828999 4293591295 1564499754 70
13.543 5.3309999 143.12801 4278255463 1564499754 70
5.1329999 1.934 51.922001 4292346111 1564516574 70
14.148 5.3299999 143.108 4278255457 1564516574 70
14.255 5.3309999 143.131 4278255452 1564335817 70
14.276 5.3309999 143.129 4278255452 1564335817 70
14.823 5.3319998 143.151 4278255440 1564335817 70
14.844 5.3319998 143.149 4278255440 1564335817 70
5.4450002 1.928 51.779999 4293525759 1564499353 70
5.579 1.9299999 51.833 4292804863 1564550520 70
5.698 1.937 52.013 4290838783 1564482481 70
16.224001 5.3239999 142.94099 4278255449 1564335817 70
16.245001 5.3239999 142.939 4278255449 1564335817 70
6.0079999 1.946 52.263 4287889663 1564482481 70
16.889999 5.3099999 142.56 4278255496 1564550520 70
12.611 3.8640001 103.756 4278255511 1564335817 70
12.617 3.8659999 103.799 4278255504 1564335817 70
12.806 3.836 103.003 4278253311 1564335817 70
12.615 3.7219999 99.934998 4293722367 1564550520 70
12.696 3.7160001 99.769997 4294902010 1564499353 70
-17.861 5.2670002 140.677 4278215423 1564568126 70
-17.771999 5.2649999 140.621 4278212863 1564550946 70
-17.523001 5.2459998 140.116 4278191359 1564482912 70
-17.566 5.2649999 140.618 4278211583 1564335817 70
-17.545 5.2649999 140.62 4278211583 1564335817 70
-17.481001 5.2519999 140.26601 4278197247 1564335817 70
-17.459999 5.2519999 140.269 4278197247 1564335817 70
-17.469999 5.2610002 140.51401 4278206975 1564534119 70
-17.268 5.2620001 140.54401 4278207231 1564499754 70
-17.243 5.2600002 140.50301 4278205439 1564335817 70
-17.222 5.2610002 140.506 4278205439 1564335817 70
-17.202999 5.2670002 140.68201 4278212351 1564335817 70
-17.183001 5.2670002 140.68401 4278212351 1564335817 70
-17.134001 5.2589998 140.45799 4278203135 1564517010 70
-16.885 5.2639999 140.605 4278207743 1564335817 70
-16.864 5.2639999 140.60699 4278207743 1564335817 70
-16.797001 5.2620001 140.55701 4278205439 1564335817 70
-16.775999 5.263 140.56 4278205439 1564335817 70
-16.478001 5.2719998 140.82201 4278214655 1564335817 70
-16.458 5.2719998 140.82401 4278214655 1564335817 70
-16.349001 5.2639999 140.595 4278204927 1564335817 70
-16.327999 5.2639999 140.59801 4278204927 1564335817 70
-13.654 4.5040002 120.303 4284678399 1564335817 70
-13.637 4.5040002 120.305 4284678399 1564335817 70
-13.539 4.507 120.369 4284154111 1564335817 70
-13.521 4.507 120.371 4284154111 1564335817 70
-11.26 3.8900001 103.901 4278255512 1564335817 70
-10.917 3.892 103.957 4278255509 1564335817 70
-10.825 3.892 103.956 4278255511 1564335817 70
-14.317 5.1469998 137.487 4294901806 1564335817 70
-14.297 5.1479998 137.489 4294901806 1564335817 70
-13.8 5.1500001 137.54401 4294901807 1564335817 70
-13.78 5.1500001 137.54601 4294901807 1564335817 70
-13.656 5.1490002 137.52 4294901801 1564335817 70
-13.636 5.1490002 137.522 4294901801 1564335817 70
-4.2789998 2.214 59.133999 4294931968 1564550946 70
-4.2810001 2.214 59.153 4294931200 1564550946 70
-4.2010002 2.2130001 59.125 4294932736 1564499754 70
-14.189 8.908 237.90601 4280353023 1564517010 70
-14.193 8.9099998 237.97301 4279697663 1564517010 70
-13.885 8.9139996 238.073 4278845695 1564534119 70
-6.9180002 5.5739999 148.88699 4294901977 1564335817 70
-6.921 5.5770001 148.94501 4294901986 1564335817 70
-6.8969998 5.5739999 148.888 4294901977 1564335817 70
-6.8990002 5.5770001 148.946 4294901986 1564335817 70
-6.6560001 5.5739999 148.866 4294901972 1564335817 70
-6.658 5.5749998 148.90401 4294901978 1564335817 70
-6.6339998 5.5739999 148.867 4294901972 1564335817 70
-6.6360002 5.5749998 148.905 4294901978 1564335817 70
-6.2740002 7.2789998 194.407 4292738816 1564335817 70
-6.2740002 7.2789998 194.416 4292804352 1564335817 70
-6.2449999 7.2789998 194.407 4292738816 1564335817 70
-6.2449999 7.2789998 194.41701 4292804352 1564335817 70
-5.9889998 7.2789998 194.411 4292673280 1564335817 70
-5.961 7.2789998 194.412 4292673280 1564335817 70
-3.8180001 8.9219999 238.283 4280484095 1564499754 70
-0.175 3.911 104.475 4278255518 1564335817 70
0.068000004 3.9089999 104.403 4278255529 1564568126 70
0.16 3.905 104.316 4278255543 1564568126 70
1.265 1.933 51.632 4294901971 1564517010 70
1.266 1.934 51.660999 4294901976 1564517010 70
4.355 5.1700001 138.084 4294901794 1564335817 70
4.375 5.1700001 138.08299 4294901794 1564335817 70
5.0089998 5.3509998 142.916 4278255583 1564335817 70
5.0110002 5.3530002 142.978 4278255574 1564335817 70
5.0300002 5.3509998 142.91499 4278255583 1564335817 70
5.0320001 5.3530002 142.97701 4278255574 1564335817 70
4.8930001 4.527 120.908 4285399295 1564482912 70
4.8940001 4.5279999 120.951 4284940543 1564482912 70
5.7849998 5.3520002 142.95399 4278255573 1564482912 70
4.9289999 4.5279999 120.94 4285006079 1564567732 70
5.8280001 5.3530002 142.981 4278255568 1564567732 70
6.75 5.3540001 143.007 4278255558 1564335817 70
6.7519999 5.3559999 143.05499 4278255550 1564335817 70
6.7709999 5.3540001 143.006 4278255558 1564335817 70
6.7729998 5.3559999 143.054 4278255550 1564335817 70
6.7930002 5.355 143.034 4278255553 1564335817 70
6.7930002 5.355 143.039 4278255552 1564335817 70
6.8140001 5.355 143.033 4278255553 1564335817 70
6.8140001 5.355 143.03799 4278255552 1564335817 70
7.526 5.355 143.036 4278255547 1564482912 70
8.0699997 5.355 143.03 4278255543 1564533683 70
8.0699997 5.355 143.03999 4278255542 1564533683 70
8.448 5.3559999 143.052 4278255537 1564335817 70
8.4490004 5.3569999 143.071 4278255534 1564335817 70
8.4689999 5.3559999 143.05 4278255537 1564335817 70
8.4700003 5.3569999 143.07001 4278255534 1564335817 70
8.9919996 5.3559999 143.047 4278255532 1564335817 70
8.993 5.3559999 143.062 4278255530 1564335817 70
9.0129995 5.3559999 143.04601 4278255532 1564335817 70
9.0139999 5.3559999 143.06 4278255530 1564335817 70
9.118 5.3559999 143.05901 4278255529 1564516574 70
9.2840004 5.355 143.02901 4278255532 1564516574 70
9.2860003 5.3559999 143.067 4278255526 1564516574 70
10.018 5.3559999 143.05099 4278255521 1564533683 70
10.166 5.3569999 143.07001 4278255516 1564335817 70
10.187 5.3559999 143.06799 4278255516 1564335817 70
10.9 5.3569999 143.088 4278255505 1564335817 70
10.921 5.3569999 143.086 4278255505 1564335817 70
11.298 5.3569999 143.08099 4278255501 1564482481 70
11.591 5.3569999 143.08701 4278255496 1564567732 70
12.117 5.3579998 143.11 4278255486 1564335817 70
12.138 5.3579998 143.10899 4278255486 1564335817 70
12.391 5.3590002 143.13 4278255479 1564335817 70
12.412 5.3590002 143.12801 4278255479 1564335817 70
4.7129998 1.943 51.898998 4293001471 1564499754 70
12.997 5.3579998 143.12 4278255472 1564499754 70
4.7880001 1.942 51.888 4293067007 1564550520 70
13.206 5.3579998 143.106 4278255472 1564550520 70
13.73 5.3579998 143.114 4278255462 1564335817 70
13.751 5.3579998 143.112 4278255462 1564335817 70
13.942 5.3590002 143.142 4278255455 1564335817 70
13.963 5.3590002 143.14 4278255455 1564335817 70
14.276 5.3590002 143.12801 4278255452 1564516574 70
5.368 1.938 51.772999 4293656831 1564499754 70
14.844 5.3590002 143.14799 4278255440 1564499754 70
14.947 5.3590002 143.132 4278255441 1564335817 70
14.967 5.3590002 143.13 4278255441 1564335817 70
15.571 5.3569999 143.09 4278255437 1564335817 70
15.591 5.3569999 143.088 4278255437 1564335817 70
5.9590001 1.9630001 52.437 4286185727 1564567732 70
16.243999 5.3520002 142.938 4278255449 1564567732 70
12.548 4.0050001 106.968 4294942976 1564335817 70
17.024 5.3400002 142.63 4278255483 1564335817 70
17.044001 5.3400002 142.62801 4278255483 1564335817 70
12.626 3.8840001 103.753 4278255511 1564516574 70
12.632 3.8859999 103.796 4278255504 1564533683 70
12.821 3.8559999 103 4278253311 1564533683 70
12.636 3.7390001 99.869003 4294377727 1564335817 70
-18.018 5.2919998 140.618 4278213887 1564335817 70
-17.997999 5.2919998 140.62 4278213887 1564335817 70
-17.847 5.2839999 140.407 4278204671 1564335817 70
-17.827 5.2839999 140.41 4278204671 1564335817 70
-17.818001 5.2940001 140.662 4278214655 1564335817 70
-17.798 5.2940001 140.66499 4278214655 1564335817 70
-17.565001 5.2919998 140.617 4278211583 1564550946 70
-17.459999 5.2789998 140.26801 4278197247 1564499754 70
-17.243 5.2880001 140.502 4278205439 1564534119 70
-17.181999 5.2950001 140.683 4278212351 1564517010 70
-16.864 5.2919998 140.606 4278207743 1564517010 70
-16.775999 5.29 140.55901 4278205439 1564534119 70
-16.458 5.3000002 140.823 4278214655 1564499754 70
-16.327999 5.2909999 140.597 4278204927 1564550946 70
-13.637 4.5279999 120.304 4284678399 1564482912 70
-13.521 4.5300002 120.37 4284154111 1564568126 70
-11.245 3.9100001 103.902 4278255512 1564482912 70
-10.901 3.9119999 103.957 4278255509 1564550946 70
-10.81 3.9119999 103.957 4278255511 1564499754 70
-14.297 5.1739998 137.48801 4294901806 1564499754 70
-10.684 3.911 103.913 4278255520 1564335817 70
-13.975 5.1739998 137.487 4294901801 1564335817 70
-13.955 5.1739998 137.489 4294901801 1564335817 70
-13.78 5.1760001 137.545 4294901807 1564534119 70
-13.636 5.1760001 137.521 4294901801 1564517010 70
-6.8969998 5.6030002 148.88699 4294901977 1564482912 70
-6.8990002 5.605 148.94501 4294901986 1564482912 70
-6.6339998 5.6030002 148.866 4294901972 1564568126 70
-6.6360002 5.6040001 148.90401 4294901978 1564568126 70
-6.2449999 7.3169999 194.40601 4292738816 1564550946 70
-6.2449999 7.3169999 194.416 4292804352 1564550946 70
-5.961 7.3169999 194.41 4292673280 1564499754 70
-4.3060002 8.9680004 238.27299 4280484095 1564335817 70
-4.2719998 8.9680004 238.274 4280484095 1564335817 70
-0.16 3.9319999 104.474 4278255518 1564568126 70
1.4529999 1.941 51.588001 4294901965 1564533683 70
1.454 1.943 51.636002 4294901973 1564533683 70
4.375 5.197 138.082 4294901794 1564499754 70
5.0300002 5.3790002 142.914 4278255583 1564550946 70
5.0320001 5.381 142.976 4278255574 1564550946 70
4.6430001 4.5489998 120.869 4285858047 1564335817 70
4.6459999 4.5510001 120.926 4285268223 1564335817 70
5.4920001 5.381 142.96899 4278255572 1564335817 70
4.6609998 4.5489998 120.868 4285858047 1564335817 70
4.6630001 4.5510001 120.926 4285268223 1564335817 70
5.513 5.381 142.968 4278255572 1564335817 70
5.1360002 4.546 120.806 4286316799 1564335817 70
6.0770001 5.3800001 142.94501 4278255572 1564335817 70
6.079 5.381 142.98801 4278255565 1564335817 70
5.1539998 4.546 120.805 4286316799 1564335817 70
6.098 5.3800001 142.944 4278255572 1564335817 70
6.0999999 5.381 142.98801 4278255565 1564335817 70
6.7709999 5.382 143.005 4278255558 1564567732 70
6.7729998 5.3839998 143.05299 4278255550 1564567732 70
6.8140001 5.3829999 143.032 4278255553 1564482912 70
6.8140001 5.3829999 143.037 4278255552 1564482912 70
7.7550001 5.382 143.013 4278255549 1564335817 70
7.756 5.3829999 143.032 4278255546 1564335817 70
7.776 5.382 143.01199 4278255549 1564335817 70
7.777 5.3829999 143.03101 4278255546 1564335817 70
7.7779999 5.3839998 143.05499 4278255542 1564335817 70
7.7989998 5.3839998 143.054 4278255542 1564335817 70
8.4689999 5.3839998 143.049 4278255537 1564499754 70
8.4700003 5.3839998 143.069 4278255534 1564499754 70
9.0129995 5.3829999 143.045 4278255532 1564516574 70
9.0139999 5.3839998 143.05901 4278255530 1564516574 70
9.368 5.3829999 143.041 4278255529 1564335817 70
9.3699999 5.3839998 143.07001 4278255524 1564335817 70
9.3889999 5.3829999 143.03999 4278255529 1564335817 70
9.3909998 5.3839998 143.069 4278255524 1564335817 70
9.8929996 5.3839998 143.05901 4278255521 1564335817 70
9.9139996 5.3839998 143.058 4278255521 1564335817 70
10.187 5.3839998 143.067 4278255516 1564499754 70
10.921 5.3850002 143.08501 4278255505 1564550946 70
11.044 5.3839998 143.05701 4278255508 1564335817 70
11.065 5.3839998 143.05499 4278255508 1564335817 70
11.8 5.3850002 143.078 4278255495 1564335817 70
11.821 5.3850002 143.076 4278255495 1564335817 70
12.137 5.3860002 143.108 4278255486 1564567732 70
12.411 5.3870001 143.127 4278255479 1564482481 70
12.976 5.3860002 143.116 4278255473 1564335817 70
12.997 5.3860002 143.114 4278255473 1564335817 70
13.186 5.3860002 143.12601 4278255469 1564335817 70
13.207 5.3860002 143.12399 4278255469 1564335817 70
5.006 1.961 52.106998 4290576639 1564516574 70
13.751 5.3860002 143.11099 4278255462 1564516574 70
5.072 1.957 52 4291625215 1564533683 70
13.963 5.3870001 143.13901 4278255455 1564533683 70
14.44 5.3850002 143.09599 4278255454 1564335817 70
14.461 5.3850002 143.09399 4278255454 1564335817 70
14.631 5.3860002 143.12 4278255447 1564335817 70
14.652 5.3860002 143.118 4278255447 1564335817 70
5.4130001 1.948 51.768002 4293656831 1564533683 70
14.967 5.3870001 143.129 4278255441 1564533683 70
5.6139998 1.952 51.876999 4292346111 1564482481 70
5.6599998 1.955 51.949001 4291559679 1564550520 70
15.591 5.3850002 143.086 4278255437 1564550520 70
16.076 5.3860002 143.11501 4278255424 1564335817 70
16.097 5.3860002 143.11301 4278255424 1564335817 70
16.198999 5.3850002 143.08701 4278255426 1564335817 70
16.219 5.3850002 143.084 4278255426 1564335817 70
6.0599999 1.966 52.245998 4288020735 1564482481 70
12.563 4.0250001 106.966 4294942976 1564550520 70
17.044001 5.368 142.62601 4278255483 1564499754 70
12.527 3.9070001 103.808 4278255504 1564335817 70
12.631 3.8499999 102.313 4278224895 1564335817 70
12.65 3.7579999 99.865997 4294377727 1564499353 70
-17.997999 5.3189998 140.619 4278213887 1564568126 70
-17.958 5.3200002 140.629 4278214143 1564335817 70
-17.937 5.3200002 140.62199 4278213887 1564335817 70
-17.938 5.3200002 140.632 4278214143 1564335817 70
-17.916 5.3200002 140.625 4278213887 1564335817 70
-17.827 5.3119998 140.409 4278204671 1564568126 70
-17.798 5.3210001 140.664 4278214655 1564482912 70
-17.731001 5.3200002 140.62399 4278212863 1564335817 70
-17.711 5.3200002 140.627 4278212863 1564335817 70
-17.667 5.3189998 140.608 4278211839 1564335817 70
-17.646999 5.3189998 140.61 4278211839 1564335817 70
-17.438 5.3179998 140.588 4278210047 1564335817 70
-17.417999 5.3179998 140.591 4278210047 1564335817 70
-17.386 5.3210001 140.66701 4278212863 1564335817 70
-17.365999 5.3210001 140.66901 4278212863 1564335817 70
-17.076 5.3150001 140.48801 4278204159 1564335817 70
-17.056 5.3150001 140.49001 4278204159 1564335817 70
-17.002001 5.3169999 140.55499 4278206463 1564335817 70
-16.982 5.3169999 140.55701 4278206463 1564335817 70
-16.702 5.3200002 140.62399 4278207743 1564335817 70
-16.681999 5.3200002 140.627 4278207743 1564335817 70
-16.542999 5.3080001 140.32401 4278194943 1564335817 70
-16.523001 5.3080001 140.327 4278194943 1564335817 70
-16.245001 5.3249998 140.765 4278211327 1564335817 70
-16.224001 5.3249998 140.767 4278211327 1564335817 70
-13.779 4.5510001 120.311 4284416255 1564335817 70
-13.761 4.5510001 120.313 4284416255 1564335817 70
-13.333 4.5549998 120.419 4283826431 1564335817 70
-13.315 4.5549998 120.421 4283826431 1564335817 70
-11.155 3.931 103.91 4278255512 1564335817 70
-11.05 3.931 103.922 4278255512 1564335817 70
-10.669 3.931 103.913 4278255520 1564500220 70
-13.955 5.2010002 137.48801 4294901801 1564534119 70
-4.4619999 2.237 59.143002 4294930944 1564380763 70
-4.3699999 2.2349999 59.077999 4294934016 1564550946 70
-4.375 2.237 59.139999 4294931456 1564550946 70
-4.0999999 2.2379999 59.165001 4294931200 1564500220 70
-4.0999999 2.2379999 59.174 4294930944 1564500220 70
-3.993 2.227 58.874001 4294943232 1564534119 70
-4.02 2.2420001 59.261002 4294927616 1564534119 70
-6.3730001 5.632 148.87601 4294901972 1564335817 70
-6.375 5.6339998 148.924 4294901979 1564335817 70
-6.3509998 5.632 148.877 4294901972 1564335817 70
-6.3530002 5.6339998 148.925 4294901979 1564335817 70
-6.1729999 5.6279998 148.784 4294901956 1564335817 70
-6.1739998 5.6290002 148.798 4294901958 1564335817 70
-6.151 5.6279998 148.784 4294901956 1564335817 70
-6.152 5.6290002 148.799 4294901958 1564335817 70
-6.9860001 7.355 194.427 4293197568 1564335817 70
-6.9860001 7.355 194.43201 4293263104 1564335817 70
-6.9569998 7.355 194.42799 4293197568 1564335817 70
-6.9569998 7.355 194.433 4293263104 1564335817 70
-6.6440001 7.355 194.42 4293000960 1564335817 70
-6.6440001 7.355 194.425 4293066496 1564335817 70
-6.6160002 7.355 194.42101 4293000960 1564335817 70
-6.6160002 7.355 194.42599 4293066496 1564335817 70
-4.2719998 9.0139999 238.272 4280484095 1564517010 70
1.168 1.955 51.686001 4294901980 1564517010 70
1.191 1.954 51.671001 4294901977 1564517010 70
4.0710001 5.2220001 138.052 4294901788 1564335817 70
4.0910001 5.2220001 138.052 4294901788 1564335817 70
4.132 5.223 138.06 4294901790 1564335817 70
4.152 5.223 138.05901 4294901790 1564335817 70
5.2199998 5.408 142.94901 4278255577 1564335817 70
5.2210002 5.4089999 142.99699 4278255569 1564335817 70
5.2410002 5.408 142.94901 4278255577 1564335817 70
5.2420001 5.4089999 142.996 4278255569 1564335817 70
5.2839999 5.4099998 143 4278255568 1564335817 70
5.3049998 5.4099998 142.99899 4278255568 1564335817 70
4.6609998 4.572 120.867 4285858047 1564482912 70
4.6630001 4.5739999 120.925 4285268223 1564482912 70
5.513 5.408 142.967 4278255572 1564482912 70
5.1539998 4.5700002 120.804 4286316799 1564568126 70
6.098 5.4070001 142.94299 4278255572 1564568126 70
6.0999999 5.4089999 142.98599 4278255565 1564568126 70
6.4980001 5.4099998 143.00301 4278255560 1564335817 70
6.4990001 5.4099998 143.007 4278255559 1564335817 70
6.5190001 5.4099998 143.002 4278255560 1564335817 70
6.5190001 5.4099998 143.006 4278255559 1564335817 70
7.0450001 5.4109998 143.049 4278255549 1564335817 70
7.066 5.4109998 143.048 4278255549 1564335817 70
7.776 5.4099998 143.011 4278255549 1564499754 70
7.777 5.4109998 143.03 4278255546 1564499754 70
7.7989998 5.4120002 143.05299 4278255542 1564550946 70
8.698 5.4109998 143.03 4278255537 1564335817 70
8.6990004 5.4109998 143.049 4278255534 1564335817 70
8.717 5.4099998 143 4278255542 1564335817 70
8.7189999 5.4109998 143.02901 4278255537 1564335817 70
8.7189999 5.4109998 143.03799 4278255536 1564335817 70
8.7200003 5.4109998 143.048 4278255534 1564335817 70
8.7379999 5.4099998 142.99899 4278255542 1564335817 70
8.7399998 5.4109998 143.037 4278255536 1564335817 70
9.3889999 5.4109998 143.039 4278255529 1564516574 70
9.3909998 5.4120002 143.06799 4278255524 1564516574 70
9.9139996 5.4120002 143.05701 4278255521 1564499754 70
10.271 5.4120002 143.07001 4278255515 1564335817 70
10.291 5.4120002 143.06799 4278255515 1564335817 70
10.774 5.4120002 143.076 4278255508 1564335817 70
10.794 5.4120002 143.075 4278255508 1564335817 70
11.065 5.4120002 143.054 4278255508 1564482481 70
11.821 5.4120002 143.075 4278255495 1564567732 70
11.884 5.4130001 143.084 4278255493 1564335817 70
11.905 5.4130001 143.08299 4278255493 1564335817 70
12.622 5.415 143.13699 4278255475 1564335817 70
12.643 5.415 143.13499 4278255475 1564335817 70
12.997 5.414 143.11301 4278255473 1564550946 70
13.207 5.414 143.123 4278255469 1564499754 70
13.941 5.415 143.13499 4278255456 1564335817 70
13.962 5.415 143.133 4278255456 1564335817 70
14.461 5.4130001 143.093 4278255454 1564533683 70
5.3099999 1.962 51.869999 4292739327 1564516574 70
14.652 5.414 143.117 4278255447 1564516574 70
5.9050002 1.9859999 52.505001 4285530367 1564567732 70
16.097 5.414 143.112 4278255424 1564567732 70
5.9439998 1.983 52.438 4286185727 1564567732 70
16.219 5.4130001 143.08299 4278255426 1564567732 70
16.693001 5.3969998 142.662 4278255484 1564335817 70
16.714001 5.3969998 142.66 4278255484 1564335817 70
17.049 5.3899999 142.49001 4278255504 1564335817 70
17.069 5.3899999 142.487 4278255504 1564335817 70
12.542 3.927 103.806 4278255504 1564533683 70
12.645 3.8699999 102.31 4278224895 1564516574 70
12.589 3.7809999 99.959999 4293460223 1564335817 70
12.69 3.776 99.832001 4294639871 1564335817 70
-17.938 5.3470001 140.631 4278214143 1564568126 70
-17.916 5.3470001 140.62399 4278213887 1564568126 70
-17.711 5.3470001 140.62601 4278212863 1564482912 70
-17.646999 5.3460002 140.60899 4278211839 1564550946 70
-17.417999 5.3460002 140.59 4278210047 1564500220 70
-17.365999 5.349 140.668 4278212863 1564534119 70
-17.056 5.342 140.489 4278204159 1564414848 70
-16.982 5.3439999 140.556 4278206463 1564414848 70
-16.681 5.3470001 140.62601 4278207743 1564534119 70
-16.523001 5.336 140.326 4278194943 1564398025 70
-16.224001 5.3520002 140.76601 4278211327 1564550946 70
-13.761 4.5749998 120.312 4284416255 1564482912 70
-13.315 4.579 120.42 4283826431 1564568126 70
-13.3 4.5799999 120.441 4283629823 1564335817 70
-13.282 4.5799999 120.443 4283629823 1564335817 70
-11.168 3.95 103.889 4278255515 1564335817 70
-11.14 3.951 103.911 4278255512 1564482912 70
-11.035 3.951 103.923 4278255512 1564550946 70
-11.018 3.951 103.905 4278255515 1564335817 70
-10.694 3.9489999 103.862 4278255527 1564335817 70
-14.154 5.2270002 137.467 4294901801 1564335817 70
-14.134 5.2270002 137.46899 4294901801 1564335817 70
-13.981 5.23 137.552 4294901812 1564335817 70
-13.962 5.23 137.554 4294901812 1564335817 70
-6.4590001 5.6599998 148.85201 4294901969 1564335817 70
-6.46 5.6609998 148.881 4294901973 1564335817 70
-6.4369998 5.6599998 148.853 4294901969 1564335817 70
-6.4390001 5.6609998 148.882 4294901973 1564335817 70
-6.3509998 5.6609998 148.87601 4294901972 1564568126 70
-6.3530002 5.6630001 148.924 4294901979 1564568126 70
-6.151 5.6570001 148.783 4294901956 1564568126 70
-6.152 5.658 148.798 4294901958 1564568126 70
-6.092 5.6630001 148.939 4294901980 1564335817 70
-6.0710001 5.6630001 148.94 4294901980 1564335817 70
-6.9569998 7.3930001 194.427 4293197568 1564482912 70
-6.9569998 7.3930001 194.43201 4293263104 1564482912 70
-6.6149998 7.3930001 194.42 4293000960 1564550946 70
-6.6160002 7.3930001 194.425 4293066496 1564550946 70
-3.4690001 9.0579996 238.216 4281204991 1564335817 70
-3.434 9.0579996 238.217 4281204991 1564335817 70
0.359 3.977 104.601 4278255497 1564335817 70
1.525 1.956 51.456001 4294901945 1564499754 70
1.526 1.9579999 51.499001 4294901952 1564499754 70
4.0910001 5.2490001 138.05099 4294901788 1564499754 70
1.548 1.957 51.488998 4294901950 1564534119 70
1.548 1.9579999 51.493999 4294901951 1564534119 70
4.152 5.2490001 138.058 4294901790 1564534119 70
5.2399998 5.4349999 142.948 4278255577 1564482912 70
5.2420001 5.4369998 142.995 4278255569 1564482912 70
5.3049998 5.4369998 142.998 4278255568 1564550946 70
6.2259998 5.4369998 142.99899 4278255562 1564335817 70
6.2470002 5.4369998 142.998 4278255562 1564335817 70
6.3299999 5.4369998 142.98 4278255565 1564335817 70
6.3309999 5.4369998 142.99899 4278255562 1564335817 70
6.3509998 5.4369998 142.979 4278255565 1564335817 70
6.3520002 5.4369998 142.998 4278255562 1564335817 70
6.5190001 5.4369998 143.00101 4278255560 1564567732 70
6.5190001 5.4380002 143.005 4278255559 1564567732 70
7.066 5.4390001 143.047 4278255549 1564482912 70
7.526 5.4390001 143.03799 4278255546 1564335817 70
7.527 5.4390001 143.052 4278255544 1564335817 70
7.5469999 5.4390001 143.036 4278255546 1564335817 70
7.5469999 5.4390001 143.05099 4278255544 1564335817 70
8.007 5.4390001 143.03999 4278255542 1564335817 70
8.0080004 5.4400001 143.05901 4278255539 1564335817 70
8.0279999 5.4390001 143.039 4278255542 1564335817 70
8.0290003 5.4400001 143.058 4278255539 1564335817 70
8.7180004 5.4380002 143.028 4278255537 1564517010 70
8.7200003 5.4390001 143.047 4278255534 1564517010 70
8.7379999 5.4369998 142.998 4278255542 1564533683 70
8.7399998 5.4390001 143.036 4278255536 1564533683 70
9.6199999 5.4390001 143.047 4278255525 1564335817 70
9.6210003 5.4400001 143.056 4278255524 1564335817 70
9.6309996 5.434 142.90199 4278255548 1564335817 70
9.6400003 5.4390001 143.03999 4278255526 1564335817 70
9.6409998 5.4390001 143.045 4278255525 1564335817 70
9.6409998 5.4390001 143.05499 4278255524 1564335817 70
9.6520004 5.434 142.89999 4278255548 1564335817 70
9.6610003 5.4390001 143.039 4278255526 1564335817 70
10.291 5.4400001 143.067 4278255515 1564533683 70
10.794 5.4400001 143.07401 4278255508 1564482912 70
11.151 5.4400001 143.08 4278255503 1564335817 70
11.172 5.4400001 143.078 4278255503 1564335817 70
11.632 5.4400001 143.075 4278255497 1564335817 70
11.653 5.4400001 143.07401 4278255497 1564335817 70
11.905 5.4400001 143.082 4278255493 1564567732 70
12.642 5.4419999 143.134 4278255475 1564482481 70
12.744 5.441 143.09599 4278255479 1564335817 70
12.765 5.441 143.09399 4278255479 1564335817 70
13.393 5.441 143.095 4278255470 1564335817 70
13.414 5.441 143.093 4278255470 1564335817 70
4.9990001 1.978 52.029999 4291363071 1564533683 70
5.0689998 1.976 51.966 4291952895 1564516574 70
13.962 5.4419999 143.132 4278255456 1564516574 70
14.442 5.4419999 143.11301 4278255451 1564335817 70
14.463 5.4419999 143.11099 4278255451 1564335817 70
14.627 5.4400001 143.08 4278255453 1564335817 70
14.648 5.4400001 143.078 4278255453 1564335817 70
5.474 1.9680001 51.765999 4293591295 1564550520 70
5.5430002 1.9680001 51.778 4293394687 1564499754 70
15.783 5.4419999 143.121 4278255428 1564335817 70
15.804 5.4419999 143.119 4278255428 1564335817 70
15.907 5.441 143.103 4278255428 1564335817 70
15.928 5.441 143.10001 4278255428 1564335817 70
16.337999 5.4380002 143.02499 4278255433 1564335817 70
16.358999 5.4380002 143.02299 4278255433 1564335817 70
16.714001 5.4239998 142.659 4278255484 1564380345 70
17.069 5.4180002 142.48599 4278255504 1564533683 70
12.723 3.9419999 103.677 4278255521 1564335817 70
12.761 3.9400001 103.614 4278255530 1564335817 70
12.603 3.8010001 99.958 4293460223 1564499353 70
12.704 3.796 99.829002 4294639871 1564550520 70
-17.975 5.3730001 140.601 4278213119 1564335817 70
-17.955 5.3740001 140.603 4278213119 1564335817 70
-17.889999 5.3670001 140.418 4278205439 1564335817 70
-17.870001 5.3670001 140.42101 4278205439 1564335817 70
-17.759001 5.3769999 140.681 4278215423 1564335817 70
-17.738001 5.3769999 140.68401 4278215423 1564335817 70
-17.462 5.3740001 140.612 4278211071 1564335817 70
-17.441999 5.3740001 140.61501 4278211071 1564335817 70
-17.353001 5.3720002 140.56799 4278208767 1564335817 70
-17.333 5.3720002 140.57001 4278208767 1564335817 70
-17.1 5.3699999 140.51601 4278205439 1564335817 70
-17.08 5.3699999 140.519 4278205439 1564335817 70
-16.964001 5.3660002 140.412 4278200575 1564335817 70
-16.944 5.3660002 140.41499 4278200575 1564335817 70
-16.714001 5.3779998 140.72701 4278212095 1564335817 70
-16.694 5.3779998 140.729 4278212095 1564335817 70
-16.586 5.3769999 140.689 4278210047 1564335817 70
-16.566 5.3769999 140.69099 4278210047 1564335817 70
-16.268 5.3800001 140.784 4278212351 1564335817 70
-16.247 5.381 140.786 4278212351 1564335817 70
-13.765 4.599 120.344 4284088575 1564335817 70
-13.747 4.599 120.346 4284088575 1564335817 70
-13.45 4.5999999 120.361 4284285183 1564335817 70
-13.432 4.5999999 120.363 4284285183 1564335817 70
-13.282 4.6030002 120.442 4283629823 1564466018 70
-11.153 3.97 103.89 4278255515 1564550946 70
-11.017 3.971 103.904 4278255515 1564482912 70
-10.679 3.9690001 103.863 4278255527 1564534119 70
-14.134 5.2540002 137.468 4294901801 1564534119 70
-13.961 5.257 137.55299 4294901812 1564500220 70
-4.4780002 2.26 59.132 4294931456 1564550946 70
